-2220.000000 -2409.133093 443.293154
-2220.000000 -2411.102594 442.945208
-2220.000000 -2413.072095 442.597263
-2220.000000 -2415.041596 442.249318
-2220.000000 -2417.011097 441.901373
-2220.000000 -2418.980598 441.553428
-2220.000000 -2420.950099 441.205482
-2220.000000 -2422.919600 440.857537
-2220.000000 -2424.889101 440.509592
-2220.000000 -2426.858602 440.161647
-2220.000000 -2428.828103 439.813702
-2220.000000 -2430.797604 439.465757
-2220.000000 -2432.767105 439.117811
-2220.000000 -2434.736606 438.769866
-2220.000000 -2436.706107 438.421921
-2220.000000 -2438.675608 438.073976
-2220.000000 -2440.645109 437.726031
-2220.000000 -2442.614610 437.378086
-2220.000000 -2444.584111 437.030140
-2220.000000 -2446.553612 436.682195
-2220.000000 -2448.523113 436.334250
-2220.000000 -2450.492614 435.986305
-2220.000000 -2452.462115 435.638360
-2220.000000 -2454.431616 435.290415
-2220.000000 -2456.401117 434.942469
-2220.000000 -2458.370618 434.594524
-2220.000000 -2460.340119 434.246579
-2220.000000 -2462.309620 433.898634
-2220.000000 -2464.279121 433.550689
-2220.000000 -2466.248622 433.202743
-2220.000000 -2468.218123 432.854798
-2220.000000 -2470.187624 432.506853
-2220.000000 -2472.157125 432.158908
-2220.000000 -2474.126626 431.810963
-2220.000000 -2476.096127 431.463018
-2220.000000 -2478.065628 431.115072
-2220.000000 -2480.035129 430.767127
-2220.000000 -2482.004630 430.419182
-2220.000000 -2483.974131 430.071237
-2220.000000 -2485.943632 429.723292
-2220.000000 -2487.913133 429.375347
-2220.000000 -2489.882634 429.027401
-2220.000000 -2491.852135 428.679456
-2220.000000 -2493.821636 428.331511
-2220.000000 -2495.791137 427.983566
-2220.000000 -2497.760638 427.635621
-2220.000000 -2499.730139 427.287675
-2220.000000 -2501.699640 426.939730
-2220.000000 -2503.669141 426.591785
-2220.000000 -2505.638642 426.243840
-2220.000000 -2507.608143 425.895895
-2220.000000 -2509.577644 425.547950
-2220.000000 -2511.547145 425.200004
-2220.000000 -2513.516646 424.852059
-2220.000000 -2515.486147 424.504114
-2220.000000 -2517.455648 424.156169
-2220.000000 -2519.425149 423.808224
-2220.000000 -2521.394650 423.460279
-2220.000000 -2523.364151 423.112333
-2220.000000 -2525.333652 422.764388
-2220.000000 -2527.303153 422.416443
-2220.000000 -2529.272654 422.068498
-2220.000000 -2531.242155 421.720553
-2220.000000 -2533.211656 421.372608
-2220.000000 -2535.181157 421.024662
-2220.000000 -2537.150658 420.676717
-2220.000000 -2539.120159 420.328772
-2220.000000 -2541.089660 419.980827
-2220.000000 -2543.059161 419.632882
-2220.000000 -2545.028662 419.284936
-2220.000000 -2546.998163 418.936991
-2220.000000 -2548.967664 418.589046
-2220.000000 -2550.937165 418.241101
-2220.000000 -2552.906666 417.893156
-2220.000000 -2554.876167 417.545211
-2220.000000 -2556.845668 417.197265
-2220.000000 -2558.815169 416.849320
-2220.000000 -2560.784670 416.501375
-2220.000000 -2562.754171 416.153430
-2220.000000 -2564.723672 415.805485
-2220.000000 -2566.693173 415.457540
-2220.000000 -2568.662673 415.109594
-2220.000000 -2570.632174 414.761649
-2220.000000 -2572.601675 414.413704
-2220.000000 -2574.571176 414.065759
-2220.000000 -2576.540677 413.717814
-2220.000000 -2578.510178 413.369868
-2220.000000 -2580.479679 413.021923
-2220.000000 -2582.449180 412.673978
-2220.000000 -2584.418681 412.326033
-2220.000000 -2586.388182 411.978088
-2220.000000 -2588.357683 411.630143
-2220.000000 -2590.327184 411.282197
-2220.000000 -2592.296685 410.934252
-2220.000000 -2594.266186 410.586307
-2220.000000 -2596.235687 410.238362
-2220.000000 -2598.205188 409.890417
-2220.000000 -2600.174689 409.542472
-2220.000000 -2602.144190 409.194526
-2220.000000 -2604.113691 408.846581
-2220.000000 -2606.083192 408.498636
-2220.000000 -2608.052693 408.150691
-2220.000000 -2610.022194 407.802746
-2220.000000 -2611.991695 407.454800
-2220.000000 -2613.961196 407.106855
-2220.000000 -2615.930697 406.758910
-2220.000000 -2617.900198 406.410965
-2220.000000 -2619.869699 406.063020
-2220.000000 -2621.839200 405.715075
-2220.000000 -2623.808701 405.367129
-2220.000000 -2625.778202 405.019184
-2220.000000 -2627.747703 404.671239
-2220.000000 -2629.717204 404.323294
-2220.000000 -2631.686705 403.975349
-2220.000000 -2633.656206 403.627404
-2220.000000 -2635.625707 403.279458
-2220.000000 -2637.595208 402.931513
-2220.000000 -2639.564709 402.583568
-2220.000000 -2641.534210 402.235623
-2220.000000 -2643.503711 401.887678
-2220.000000 -2645.473212 401.539733
-2220.000000 -2647.442713 401.191787
-2220.000000 -2649.412214 400.843842
-2220.000000 -2651.381715 400.495897
-2220.000000 -2653.351216 400.147952
-2220.000000 -2655.320717 399.800007
-2220.000000 -2657.290218 399.452061
-2220.000000 -2659.259719 399.104116
-2220.000000 -2661.229220 398.756171
-2220.000000 -2663.198721 398.408226
-2220.000000 -2665.168222 398.060281
-2220.000000 -2667.137723 397.712336
-2220.000000 -2669.107224 397.364390
-2220.000000 -2671.076725 397.016445
-2220.000000 -2673.046226 396.668500
-2220.000000 -2675.015727 396.320555
-2220.000000 -2676.985228 395.972610
-2220.000000 -2678.954729 395.624665
-2220.000000 -2680.924230 395.276719
-2220.000000 -2682.893731 394.928774
-2220.000000 -2684.863232 394.580829
-2220.000000 -2686.832733 394.232884
-2220.000000 -2688.802234 393.884939
-2220.000000 -2690.771735 393.536993
-2220.000000 -2692.741236 393.189048
-2220.000000 -2694.710737 392.841103
-2220.000000 -2696.680238 392.493158
-2220.000000 -2698.649739 392.145213
-2220.000000 -2700.619240 391.797268
-2220.000000 -2702.588741 391.449322
-2220.000000 -2704.558242 391.101377
-2220.000000 -2706.527743 390.753432
-2220.000000 -2708.497244 390.405487
-2220.000000 -2710.466745 390.057542
-2220.000000 -2712.436246 389.709597
-2220.000000 -2714.405747 389.361651
-2220.000000 -2716.375248 389.013706
-2220.000000 -2718.344749 388.665761
-2220.000000 -2720.314250 388.317816
-2220.000000 -2722.283751 387.969871
-2220.000000 -2724.253252 387.621926
-2220.000000 -2726.222753 387.273980
-2220.000000 -2728.192254 386.926035
-2220.000000 -2730.161755 386.578090
-2220.000000 -2732.131256 386.230145
-2220.000000 -2734.100757 385.882200
-2220.000000 -2736.070258 385.534254
-2220.000000 -2738.039759 385.186309
-2220.000000 -2740.009260 384.838364
-2220.000000 -2741.978761 384.490419
-2220.000000 -2743.948262 384.142474
-2220.000000 -2745.917763 383.794529
-2220.000000 -2747.887264 383.446583
-2220.000000 -2749.856765 383.098638
-2220.000000 -2751.826266 382.750693
-2220.000000 -2753.795767 382.402748
-2220.000000 -2755.765268 382.054803
-2220.000000 -2757.734769 381.706858
-2220.000000 -2759.704270 381.358912
-2220.000000 -2761.673771 381.010967
-2220.000000 -2763.643272 380.663022
-2220.000000 -2765.612773 380.315077
-2220.000000 -2767.582274 379.967132
-2220.000000 -2769.551775 379.619186
-2220.000000 -2771.521276 379.271241
-2220.000000 -2773.490777 378.923296
-2220.000000 -2775.460278 378.575351
-2220.000000 -2777.429779 378.227406
-2220.000000 -2779.399280 377.879461
-2220.000000 -2781.368781 377.531515
-2220.000000 -2783.338282 377.183570
-2220.000000 -2785.307783 376.835625
-2220.000000 -2787.277284 376.487680
-2220.000000 -2789.246785 376.139735
-2220.000000 -2791.216286 375.791790
-2220.000000 -2793.185787 375.443844
-2220.000000 -2795.155288 375.095899
-2220.000000 -2797.124788 374.747954
-2220.000000 -2799.094289 374.400009
-2220.000000 -2801.063790 374.052064
-2220.000000 -2803.033291 373.704119
-2220.000000 -2805.002792 373.356173
-2220.000000 -2806.972293 373.008228
-2220.000000 -2808.941794 372.660283
-2220.000000 -2810.911295 372.312338
-2220.000000 -2812.880796 371.964393
-2220.000000 -2814.850297 371.616447
-2220.000000 -2816.819798 371.268502
-2220.000000 -2818.789299 370.920557
-2220.000000 -2820.758800 370.572612
-2220.000000 -2822.728301 370.224667
-2220.000000 -2824.697802 369.876722
-2220.000000 -2826.667303 369.528776
-2220.000000 -2828.636804 369.180831
-2220.000000 -2830.606305 368.832886
-2220.000000 -2832.575806 368.484941
-2220.000000 -2834.545307 368.136996
-2220.000000 -2836.514808 367.789051
-2220.000000 -2838.484309 367.441105
-2220.000000 -2840.453810 367.093160
-2220.000000 -2842.423311 366.745215
-2220.000000 -2844.392812 366.397270
-2220.000000 -2846.362313 366.049325
-2220.000000 -2848.331814 365.701379
-2220.000000 -2850.301315 365.353434
-2220.000000 -2852.270816 365.005489
-2220.000000 -2854.240317 364.657544
-2220.000000 -2856.209818 364.309599
-2220.000000 -2858.179319 363.961654
-2220.000000 -2860.148820 363.613708
-2220.000000 -2862.118321 363.265763
-2220.000000 -2864.087822 362.917818
-2220.000000 -2866.057323 362.569873
-2220.000000 -2868.026824 362.221928
-2220.000000 -2869.996325 361.873983
-2220.000000 -2871.965826 361.526037
-2220.000000 -2873.935327 361.178092
-2220.000000 -2875.904828 360.830147
-2220.000000 -2877.874329 360.482202
-2220.000000 -2879.843830 360.134257
-2220.000000 -2881.813331 359.786312
-2220.000000 -2883.782832 359.438366
-2220.000000 -2885.752333 359.090421
-2220.000000 -2887.721834 358.742476
-2220.000000 -2889.691335 358.394531
-2220.000000 -2891.660836 358.046586
-2220.000000 -2893.630337 357.698640
-2220.000000 -2895.599838 357.350695
-2220.000000 -2897.569339 357.002750
-2220.000000 -2899.538840 356.654805
-2220.000000 -2901.508341 356.306860
-2220.000000 -2903.477842 355.958915
-2220.000000 -2905.447343 355.610969
-2220.000000 -2907.416844 355.263024
-2220.000000 -2909.386345 354.915079
-2220.000000 -2911.355846 354.567134
-2220.000000 -2913.325347 354.219189
-2220.000000 -2915.294848 353.871244
-2220.000000 -2917.264349 353.523298
-2220.000000 -2919.233850 353.175353
-2220.000000 -2921.203351 352.827408
-2220.000000 -2923.172852 352.479463
-2220.000000 -2925.142353 352.131518
-2220.000000 -2927.111854 351.783572
-2220.000000 -2929.081355 351.435627
-2220.000000 -2931.050856 351.087682
-2220.000000 -2933.020357 350.739737
-2220.000000 -2934.989858 350.391792
-2220.000000 -2936.959359 350.043847
-2220.000000 -2938.928860 349.695901
-2220.000000 -2940.898361 349.347956
-2220.000000 -2942.867862 349.000011
-2220.000000 -2944.837363 348.652066
-2220.000000 -2946.806864 348.304121
-2220.000000 -2948.776365 347.956176
-2220.000000 -2950.745866 347.608230
-2220.000000 -2952.715367 347.260285
-2220.000000 -2954.684868 346.912340
-2220.000000 -2956.654369 346.564395
-2220.000000 -2958.623870 346.216450
-2220.000000 -2960.593371 345.868504
-2220.000000 -2962.562872 345.520559
-2220.000000 -2964.532373 345.172614
-2220.000000 -2966.501874 344.824669
-2220.000000 -2968.471375 344.476724
-2220.000000 -2970.440876 344.128779
-2220.000000 -2972.410377 343.780833
-2220.000000 -2974.379878 343.432888
-2220.000000 -2976.349379 343.084943
-2220.000000 -2978.318880 342.736998
-2220.000000 -2980.288381 342.389053
-2220.000000 -2982.257882 342.041108
-2220.000000 -2984.227383 341.693162
-2220.000000 -2986.196884 341.345217
-2220.000000 -2988.166385 340.997272
-2220.000000 -2990.135886 340.649327
-2220.000000 -2992.105387 340.301382
-2220.000000 -2994.074888 339.953437
-2220.000000 -2996.044389 339.605491
-2220.000000 -2998.013890 339.257546
-2220.000000 -2999.983391 338.909601
-2220.000000 -3001.952892 338.561656
-2220.000000 -3003.922393 338.213711
-2220.000000 -3005.891894 337.865765
-2220.000000 -3007.861395 337.517820
-2220.000000 -3009.830896 337.169875
-2220.000000 -3011.800397 336.821930
-2220.000000 -3013.769898 336.473985
-2220.000000 -3015.739399 336.126040
-2220.000000 -3017.708900 335.778094
-2220.000000 -3019.678401 335.430149
-2220.000000 -3021.647902 335.082204
-2220.000000 -3023.617403 334.734259
-2220.000000 -3025.586903 334.386314
-2220.000000 -3027.556404 334.038369
-2220.000000 -3029.525905 333.690423
-2220.000000 -3031.495406 333.342478
-2220.000000 -3033.464907 332.994533
-2220.000000 -3035.434408 332.646588
-2220.000000 -3037.403909 332.298643
-2220.000000 -3039.373410 331.950697
-2220.000000 -3041.342911 331.602752
-2220.000000 -3043.312412 331.254807
-2220.000000 -3045.281913 330.906862
-2220.000000 -3047.251414 330.558917
-2220.000000 -3049.220915 330.210972
-2220.000000 -3051.190416 329.863026
-2220.000000 -3053.159917 329.515081
-2220.000000 -3055.129418 329.167136
-2220.000000 -3057.098919 328.819191
-2220.000000 -3059.068420 328.471246
-2220.000000 -3061.037921 328.123301
-2220.000000 -3063.007422 327.775355
-2220.000000 -3064.976923 327.427410
-2220.000000 -3066.946424 327.079465
-2220.000000 -3068.915925 326.731520
-2220.000000 -3070.885426 326.383575
-2220.000000 -3072.854927 326.035630
-2220.000000 -3074.824428 325.687684
-2220.000000 -3076.793929 325.339739
-2220.000000 -3078.763430 324.991794
-2220.000000 -3080.732931 324.643849
-2220.000000 -3082.702432 324.295904
-2220.000000 -3084.671933 323.947958
-2220.000000 -3086.641434 323.600013
-2220.000000 -3088.610935 323.252068
-2220.000000 -3090.580436 322.904123
-2220.000000 -3092.549937 322.556178
-2220.000000 -3094.519438 322.208233
-2220.000000 -3096.488939 321.860287
-2220.000000 -3098.458440 321.512342
-2220.000000 -3100.427941 321.164397
-2220.000000 -3102.397442 320.816452
-2220.000000 -3104.366943 320.468507
-2220.000000 -3106.336444 320.120562
-2220.000000 -3108.305945 319.772616
-2220.000000 -3110.275446 319.424671
-2220.000000 -3112.244947 319.076726
-2220.000000 -3114.214448 318.728781
-2220.000000 -3116.183949 318.380836
-2220.000000 -3118.153450 318.032890
-2220.000000 -3120.122951 317.684945
-2220.000000 -3122.092452 317.337000
-2220.000000 -3124.061953 316.989055
-2220.000000 -3126.031454 316.641110
-2220.000000 -3128.000955 316.293165
-2220.000000 -3129.970456 315.945219
-2220.000000 -3131.939957 315.597274
-2220.000000 -3133.909458 315.249329
-2220.000000 -3135.878959 314.901384
-2220.000000 -3137.848460 314.553439
-2220.000000 -3139.817961 314.205494
-2220.000000 -3141.787462 313.857548
-2220.000000 -3143.756963 313.509603
-2220.000000 -3145.726464 313.161658
-2220.000000 -3147.695965 312.813713
-2220.000000 -3149.665466 312.465768
-2220.000000 -3151.634967 312.117823
-2220.000000 -3153.604468 311.769877
-2220.000000 -3155.573969 311.421932
-2220.000000 -3157.543470 311.073987
-2220.000000 -3159.512971 310.726042
-2220.000000 -3161.482472 310.378097
-2220.000000 -3163.451973 310.030151
-2220.000000 -3165.421474 309.682206
-2220.000000 -3167.390975 309.334261
-2220.000000 -3169.360476 308.986316
-2220.000000 -3171.329977 308.638371
-2220.000000 -3173.299478 308.290426
-2220.000000 -3175.268979 307.942480
-2220.000000 -3177.238480 307.594535
-2220.000000 -3179.207981 307.246590
-2220.000000 -3181.177482 306.898645
-2220.000000 -3183.146983 306.550700
-2220.000000 -3185.116484 306.202755
-2220.000000 -3187.085985 305.854809
-2220.000000 -3189.055486 305.506864
-2220.000000 -3191.024987 305.158919
-2220.000000 -3192.994488 304.810974
-2220.000000 -3194.963989 304.463029
-2220.000000 -3196.933490 304.115083
-2220.000000 -3198.902991 303.767138
-2220.000000 -3200.872492 303.419193
-2220.000000 -3202.841993 303.071248
-2220.000000 -3204.811494 302.723303
-2220.000000 -3206.780995 302.375358
-2220.000000 -3208.750496 302.027412
-2220.000000 -3210.719997 301.679467
-2220.000000 -3212.689498 301.331522
-2220.000000 -3214.658999 300.983577
-2220.000000 -3216.628500 300.635632
-2220.000000 -3218.598001 300.287687
-2220.000000 -3220.567502 299.939741
-2220.000000 -3222.537003 299.591796
-2220.000000 -3224.506504 299.243851
-2220.000000 -3226.476005 298.895906
-2220.000000 -3228.445506 298.547961
-2220.000000 -3230.415007 298.200016
-2220.000000 -3232.384508 297.852070
-2220.000000 -3234.354009 297.504125
-2220.000000 -3236.323510 297.156180
-2220.000000 -3238.293011 296.808235
-2220.000000 -3240.262512 296.460290
-2220.000000 -3242.232013 296.112344
-2220.000000 -3244.201514 295.764399
-2220.000000 -3246.171015 295.416454
-2220.000000 -3248.140516 295.068509
-2220.000000 -3250.110017 294.720564
-2220.000000 -3252.079518 294.372619
-2220.000000 -3254.049018 294.024673
-2220.000000 -3256.018519 293.676728
-2220.000000 -3257.988020 293.328783
-2220.000000 -3259.957521 292.980838
-2220.000000 -3261.927022 292.632893
-2220.000000 -3263.896523 292.284948
-2220.000000 -3265.866024 291.937002
-2220.000000 -3267.835525 291.589057
-2220.000000 -3269.805026 291.241112
-2220.000000 -3271.774527 290.893167
-2220.000000 -3273.744028 290.545222
-2220.000000 -3275.713529 290.197276
-2220.000000 -3277.683030 289.849331
-2220.000000 -3279.652531 289.501386
-2220.000000 -3281.622032 289.153441
-2220.000000 -3283.591533 288.805496
-2220.000000 -3285.561034 288.457551
-2220.000000 -3287.530535 288.109605
-2220.000000 -3289.500036 287.761660
-2220.000000 -3291.469537 287.413715
-2220.000000 -3293.439038 287.065770
-2220.000000 -3295.408539 286.717825
-2220.000000 -3297.378040 286.369880
-2220.000000 -3299.347541 286.021934
-2220.000000 -3301.317042 285.673989
-2220.000000 -3303.286543 285.326044
-2220.000000 -3305.256044 284.978099
-2220.000000 -3307.225545 284.630154
-2220.000000 -3309.195046 284.282208
-2220.000000 -3311.164547 283.934263
-2220.000000 -3313.134048 283.586318
-2220.000000 -3315.103549 283.238373
-2220.000000 -3317.073050 282.890428
-2220.000000 -3319.042551 282.542483
-2220.000000 -3321.012052 282.194537
-2220.000000 -3322.981553 281.846592
-2220.000000 -3324.951054 281.498647
-2220.000000 -3326.920555 281.150702
-2220.000000 -3328.890056 280.802757
-2220.000000 -3330.859557 280.454812
-2220.000000 -3332.829058 280.106866
-2220.000000 -3334.798559 279.758921
-2220.000000 -3336.768060 279.410976
-2220.000000 -3338.737561 279.063031
-2220.000000 -3340.707062 278.715086
-2220.000000 -3342.676563 278.367141
-2220.000000 -3344.646064 278.019195
-2220.000000 -3346.615565 277.671250
-2220.000000 -3348.585066 277.323305
-2220.000000 -3350.554567 276.975360
-2220.000000 -3352.524068 276.627415
-2220.000000 -3354.493569 276.279469
-2220.000000 -3356.463070 275.931524
-2220.000000 -3358.432571 275.583579
-2220.000000 -3360.402072 275.235634
-2220.000000 -3362.371573 274.887689
-2220.000000 -3364.341074 274.539744
-2220.000000 -3366.310575 274.191798
-2220.000000 -3368.280076 273.843853
-2220.000000 -3370.249577 273.495908
-2220.000000 -3372.219078 273.147963
-2220.000000 -3374.188579 272.800018
-2220.000000 -3376.158080 272.452073
-2220.000000 -3378.127581 272.104127
-2220.000000 -3380.097082 271.756182
-2220.000000 -3382.066583 271.408237
-2220.000000 -3384.036084 271.060292
-2220.000000 -3386.005585 270.712347
-2220.000000 -3387.975086 270.364401
-2220.000000 -3389.944587 270.016456
-2220.000000 -3391.914088 269.668511
-2220.000000 -3393.883589 269.320566
-2220.000000 -3395.853090 268.972621
-2220.000000 -3397.822591 268.624676
-2220.000000 -3399.792092 268.276730
-2220.000000 -3401.761593 267.928785
-2220.000000 -3403.731094 267.580840
-2220.000000 -3405.700595 267.232895
-2220.000000 -3407.670096 266.884950
-2220.000000 -3409.639597 266.537005
-2220.000000 -3411.609098 266.189059
-2220.000000 -3413.578599 265.841114
-2220.000000 -3415.548100 265.493169
-2220.000000 -3417.517601 265.145224
-2220.000000 -3419.487102 264.797279
-2220.000000 -3421.456603 264.449334
-2220.000000 -3424.000000 264.000000
-2218.007961 -3424.119257 263.867492
-2216.015922 -3424.238515 263.734984
-2214.023883 -3424.357772 263.602476
-2212.031844 -3424.477029 263.469967
-2210.039805 -3424.596287 263.337459
-2208.047766 -3424.715544 263.204951
-2206.055727 -3424.834801 263.072443
-2204.063688 -3424.954059 262.939935
-2202.071649 -3425.073316 262.807427
-2200.079610 -3425.192573 262.674919
-2198.087571 -3425.311831 262.542411
-2196.095532 -3425.431088 262.409902
-2194.103493 -3425.550345 262.277394
-2192.111454 -3425.669603 262.144886
-2190.119415 -3425.788860 262.012378
-2188.127376 -3425.908117 261.879870
-2186.135337 -3426.027374 261.747362
-2184.143298 -3426.146632 261.614854
-2182.151259 -3426.265889 261.482345
-2180.159220 -3426.385146 261.349837
-2178.167181 -3426.504404 261.217329
-2176.175143 -3426.623661 261.084821
-2174.183104 -3426.742918 260.952313
-2172.191065 -3426.862176 260.819805
-2170.199026 -3426.981433 260.687297
-2168.206987 -3427.100690 260.554788
-2166.214948 -3427.219948 260.422280
-2164.222909 -3427.339205 260.289772
-2162.230870 -3427.458462 260.157264
-2160.238831 -3427.577720 260.024756
-2158.246792 -3427.696977 259.892248
-2156.254753 -3427.816234 259.759740
-2154.262714 -3427.935492 259.627232
-2152.270675 -3428.054749 259.494723
-2150.278636 -3428.174006 259.362215
-2148.286597 -3428.293264 259.229707
-2146.294558 -3428.412521 259.097199
-2144.302519 -3428.531778 258.964691
-2142.310480 -3428.651036 258.832183
-2140.318441 -3428.770293 258.699675
-2138.326402 -3428.889550 258.567166
-2136.334363 -3429.008808 258.434658
-2134.342324 -3429.128065 258.302150
-2132.350285 -3429.247322 258.169642
-2130.358246 -3429.366580 258.037134
-2128.366207 -3429.485837 257.904626
-2126.374168 -3429.605094 257.772118
-2124.382129 -3429.724351 257.639609
-2122.390090 -3429.843609 257.507101
-2120.398051 -3429.962866 257.374593
-2118.406012 -3430.082123 257.242085
-2116.413973 -3430.201381 257.109577
-2114.421934 -3430.320638 256.977069
-2112.429895 -3430.439895 256.844561
-2110.437856 -3430.559153 256.712053
-2108.445817 -3430.678410 256.579544
-2106.453778 -3430.797667 256.447036
-2104.461739 -3430.916925 256.314528
-2102.469700 -3431.036182 256.182020
-2100.477661 -3431.155439 256.049512
-2098.485622 -3431.274697 255.917004
-2096.493583 -3431.393954 255.784496
-2094.501544 -3431.513211 255.651987
-2092.509505 -3431.632469 255.519479
-2090.517467 -3431.751726 255.386971
-2088.525428 -3431.870983 255.254463
-2086.533389 -3431.990241 255.121955
-2084.541350 -3432.109498 254.989447
-2082.549311 -3432.228755 254.856939
-2080.557272 -3432.348013 254.724430
-2078.565233 -3432.467270 254.591922
-2076.573194 -3432.586527 254.459414
-2074.581155 -3432.705785 254.326906
-2072.589116 -3432.825042 254.194398
-2070.597077 -3432.944299 254.061890
-2068.605038 -3433.063556 253.929382
-2066.612999 -3433.182814 253.796874
-2064.620960 -3433.302071 253.664365
-2062.628921 -3433.421328 253.531857
-2060.636882 -3433.540586 253.399349
-2058.644843 -3433.659843 253.266841
-2056.652804 -3433.779100 253.134333
-2054.660765 -3433.898358 253.001825
-2052.668726 -3434.017615 252.869317
-2050.676687 -3434.136872 252.736808
-2048.684648 -3434.256130 252.604300
-2046.692609 -3434.375387 252.471792
-2044.700570 -3434.494644 252.339284
-2042.708531 -3434.613902 252.206776
-2040.716492 -3434.733159 252.074268
-2038.724453 -3434.852416 251.941760
-2036.732414 -3434.971674 251.809251
-2034.740375 -3435.090931 251.676743
-2032.748336 -3435.210188 251.544235
-2030.756297 -3435.329446 251.411727
-2028.764258 -3435.448703 251.279219
-2026.772219 -3435.567960 251.146711
-2024.780180 -3435.687218 251.014203
-2022.788141 -3435.806475 250.881695
-2020.796102 -3435.925732 250.749186
-2018.804063 -3436.044990 250.616678
-2016.812024 -3436.164247 250.484170
-2014.819985 -3436.283504 250.351662
-2012.827946 -3436.402762 250.219154
-2010.835907 -3436.522019 250.086646
-2008.843868 -3436.641276 249.954138
-2006.851829 -3436.760533 249.821629
-2004.859791 -3436.879791 249.689121
-2002.867752 -3436.999048 249.556613
-2000.875713 -3437.118305 249.424105
-1998.883674 -3437.237563 249.291597
-1996.891635 -3437.356820 249.159089
-1994.899596 -3437.476077 249.026581
-1992.907557 -3437.595335 248.894073
-1990.915518 -3437.714592 248.761564
-1988.923479 -3437.833849 248.629056
-1986.931440 -3437.953107 248.496548
-1984.939401 -3438.072364 248.364040
-1982.947362 -3438.191621 248.231532
-1980.955323 -3438.310879 248.099024
-1978.963284 -3438.430136 247.966516
-1976.971245 -3438.549393 247.834007
-1974.979206 -3438.668651 247.701499
-1972.987167 -3438.787908 247.568991
-1970.995128 -3438.907165 247.436483
-1969.003089 -3439.026423 247.303975
-1967.011050 -3439.145680 247.171467
-1965.019011 -3439.264937 247.038959
-1963.026972 -3439.384195 246.906450
-1961.034933 -3439.503452 246.773942
-1959.042894 -3439.622709 246.641434
-1957.050855 -3439.741967 246.508926
-1955.058816 -3439.861224 246.376418
-1953.066777 -3439.980481 246.243910
-1951.074738 -3440.099739 246.111402
-1949.082699 -3440.218996 245.978894
-1947.090660 -3440.338253 245.846385
-1945.098621 -3440.457510 245.713877
-1943.106582 -3440.576768 245.581369
-1941.114543 -3440.696025 245.448861
-1939.122504 -3440.815282 245.316353
-1937.130465 -3440.934540 245.183845
-1935.138426 -3441.053797 245.051337
-1933.146387 -3441.173054 244.918828
-1931.154348 -3441.292312 244.786320
-1929.162309 -3441.411569 244.653812
-1927.170270 -3441.530826 244.521304
-1925.178231 -3441.650084 244.388796
-1923.186192 -3441.769341 244.256288
-1921.194153 -3441.888598 244.123780
-1919.202115 -3442.007856 243.991271
-1917.210076 -3442.127113 243.858763
-1915.218037 -3442.246370 243.726255
-1913.225998 -3442.365628 243.593747
-1911.233959 -3442.484885 243.461239
-1909.241920 -3442.604142 243.328731
-1907.249881 -3442.723400 243.196223
-1905.257842 -3442.842657 243.063715
-1903.265803 -3442.961914 242.931206
-1901.273764 -3443.081172 242.798698
-1899.281725 -3443.200429 242.666190
-1897.289686 -3443.319686 242.533682
-1895.297647 -3443.438944 242.401174
-1893.305608 -3443.558201 242.268666
-1891.313569 -3443.677458 242.136158
-1889.321530 -3443.796716 242.003649
-1887.329491 -3443.915973 241.871141
-1885.337452 -3444.035230 241.738633
-1883.345413 -3444.154487 241.606125
-1881.353374 -3444.273745 241.473617
-1879.361335 -3444.393002 241.341109
-1877.369296 -3444.512259 241.208601
-1875.377257 -3444.631517 241.076092
-1873.385218 -3444.750774 240.943584
-1871.393179 -3444.870031 240.811076
-1869.401140 -3444.989289 240.678568
-1867.409101 -3445.108546 240.546060
-1865.417062 -3445.227803 240.413552
-1863.425023 -3445.347061 240.281044
-1861.432984 -3445.466318 240.148536
-1859.440945 -3445.585575 240.016027
-1857.448906 -3445.704833 239.883519
-1855.456867 -3445.824090 239.751011
-1853.464828 -3445.943347 239.618503
-1851.472789 -3446.062605 239.485995
-1849.480750 -3446.181862 239.353487
-1847.488711 -3446.301119 239.220979
-1845.496672 -3446.420377 239.088470
-1843.504633 -3446.539634 238.955962
-1841.512594 -3446.658891 238.823454
-1839.520555 -3446.778149 238.690946
-1837.528516 -3446.897406 238.558438
-1835.536477 -3447.016663 238.425930
-1833.544439 -3447.135921 238.293422
-1831.552400 -3447.255178 238.160913
-1829.560361 -3447.374435 238.028405
-1827.568322 -3447.493692 237.895897
-1825.576283 -3447.612950 237.763389
-1823.584244 -3447.732207 237.630881
-1821.592205 -3447.851464 237.498373
-1819.600166 -3447.970722 237.365865
-1817.608127 -3448.089979 237.233357
-1815.616088 -3448.209236 237.100848
-1813.624049 -3448.328494 236.968340
-1811.632010 -3448.447751 236.835832
-1809.639971 -3448.567008 236.703324
-1807.647932 -3448.686266 236.570816
-1805.655893 -3448.805523 236.438308
-1803.663854 -3448.924780 236.305800
-1801.671815 -3449.044038 236.173291
-1799.679776 -3449.163295 236.040783
-1797.687737 -3449.282552 235.908275
-1795.695698 -3449.401810 235.775767
-1793.703659 -3449.521067 235.643259
-1791.711620 -3449.640324 235.510751
-1789.719581 -3449.759582 235.378243
-1787.727542 -3449.878839 235.245735
-1785.735503 -3449.998096 235.113226
-1783.743464 -3450.117354 234.980718
-1781.751425 -3450.236611 234.848210
-1779.759386 -3450.355868 234.715702
-1777.767347 -3450.475126 234.583194
-1775.775308 -3450.594383 234.450686
-1773.783269 -3450.713640 234.318178
-1771.791230 -3450.832898 234.185669
-1769.799191 -3450.952155 234.053161
-1767.807152 -3451.071412 233.920653
-1765.815113 -3451.190669 233.788145
-1763.823074 -3451.309927 233.655637
-1761.831035 -3451.429184 233.523129
-1759.838996 -3451.548441 233.390621
-1757.846957 -3451.667699 233.258112
-1755.854918 -3451.786956 233.125604
-1753.862879 -3451.906213 232.993096
-1751.870840 -3452.025471 232.860588
-1749.878801 -3452.144728 232.728080
-1747.886763 -3452.263985 232.595572
-1745.894724 -3452.383243 232.463064
-1743.902685 -3452.502500 232.330556
-1741.910646 -3452.621757 232.198047
-1739.918607 -3452.741015 232.065539
-1737.926568 -3452.860272 231.933031
-1735.934529 -3452.979529 231.800523
-1733.942490 -3453.098787 231.668015
-1731.950451 -3453.218044 231.535507
-1729.958412 -3453.337301 231.402999
-1727.966373 -3453.456559 231.270490
-1725.974334 -3453.575816 231.137982
-1723.982295 -3453.695073 231.005474
-1721.990256 -3453.814331 230.872966
-1719.998217 -3453.933588 230.740458
-1718.006178 -3454.052845 230.607950
-1716.014139 -3454.172103 230.475442
-1714.022100 -3454.291360 230.342933
-1712.030061 -3454.410617 230.210425
-1710.038022 -3454.529875 230.077917
-1708.045983 -3454.649132 229.945409
-1706.053944 -3454.768389 229.812901
-1704.061905 -3454.887646 229.680393
-1702.069866 -3455.006904 229.547885
-1700.077827 -3455.126161 229.415377
-1698.085788 -3455.245418 229.282868
-1696.093749 -3455.364676 229.150360
-1694.101710 -3455.483933 229.017852
-1692.109671 -3455.603190 228.885344
-1690.117632 -3455.722448 228.752836
-1688.125593 -3455.841705 228.620328
-1686.133554 -3455.960962 228.487820
-1684.141515 -3456.080220 228.355311
-1682.149476 -3456.199477 228.222803
-1680.157437 -3456.318734 228.090295
-1678.165398 -3456.437992 227.957787
-1676.173359 -3456.557249 227.825279
-1674.181320 -3456.676506 227.692771
-1672.189281 -3456.795764 227.560263
-1670.197242 -3456.915021 227.427754
-1668.205203 -3457.034278 227.295246
-1666.213164 -3457.153536 227.162738
-1664.221125 -3457.272793 227.030230
-1662.229087 -3457.392050 226.897722
-1660.237048 -3457.511308 226.765214
-1658.245009 -3457.630565 226.632706
-1656.252970 -3457.749822 226.500198
-1654.260931 -3457.869080 226.367689
-1652.268892 -3457.988337 226.235181
-1650.276853 -3458.107594 226.102673
-1648.284814 -3458.226852 225.970165
-1646.292775 -3458.346109 225.837657
-1644.300736 -3458.465366 225.705149
-1642.308697 -3458.584623 225.572641
-1640.316658 -3458.703881 225.440132
-1638.324619 -3458.823138 225.307624
-1636.332580 -3458.942395 225.175116
-1634.340541 -3459.061653 225.042608
-1632.348502 -3459.180910 224.910100
-1630.356463 -3459.300167 224.777592
-1628.364424 -3459.419425 224.645084
-1626.372385 -3459.538682 224.512575
-1624.380346 -3459.657939 224.380067
-1622.388307 -3459.777197 224.247559
-1620.396268 -3459.896454 224.115051
-1618.404229 -3460.015711 223.982543
-1616.412190 -3460.134969 223.850035
-1614.420151 -3460.254226 223.717527
-1612.428112 -3460.373483 223.585019
-1610.436073 -3460.492741 223.452510
-1608.444034 -3460.611998 223.320002
-1606.451995 -3460.731255 223.187494
-1604.459956 -3460.850513 223.054986
-1602.467917 -3460.969770 222.922478
-1600.475878 -3461.089027 222.789970
-1598.483839 -3461.208285 222.657462
-1596.491800 -3461.327542 222.524953
-1594.499761 -3461.446799 222.392445
-1592.507722 -3461.566057 222.259937
-1590.515683 -3461.685314 222.127429
-1588.523644 -3461.804571 221.994921
-1586.531605 -3461.923829 221.862413
-1584.539566 -3462.043086 221.729905
-1582.547527 -3462.162343 221.597397
-1580.555488 -3462.281600 221.464888
-1578.563449 -3462.400858 221.332380
-1576.571411 -3462.520115 221.199872
-1574.579372 -3462.639372 221.067364
-1572.587333 -3462.758630 220.934856
-1570.595294 -3462.877887 220.802348
-1568.603255 -3462.997144 220.669840
-1566.611216 -3463.116402 220.537331
-1564.619177 -3463.235659 220.404823
-1562.627138 -3463.354916 220.272315
-1560.635099 -3463.474174 220.139807
-1558.643060 -3463.593431 220.007299
-1556.651021 -3463.712688 219.874791
-1554.658982 -3463.831946 219.742283
-1552.666943 -3463.951203 219.609774
-1550.674904 -3464.070460 219.477266
-1548.682865 -3464.189718 219.344758
-1546.690826 -3464.308975 219.212250
-1544.698787 -3464.428232 219.079742
-1542.706748 -3464.547490 218.947234
-1540.714709 -3464.666747 218.814726
-1538.722670 -3464.786004 218.682218
-1536.730631 -3464.905262 218.549709
-1534.738592 -3465.024519 218.417201
-1532.746553 -3465.143776 218.284693
-1530.754514 -3465.263034 218.152185
-1528.762475 -3465.382291 218.019677
-1526.770436 -3465.501548 217.887169
-1524.778397 -3465.620805 217.754661
-1522.786358 -3465.740063 217.622152
-1520.794319 -3465.859320 217.489644
-1518.802280 -3465.978577 217.357136
-1516.810241 -3466.097835 217.224628
-1514.818202 -3466.217092 217.092120
-1512.826163 -3466.336349 216.959612
-1510.834124 -3466.455607 216.827104
-1508.842085 -3466.574864 216.694595
-1506.850046 -3466.694121 216.562087
-1504.858007 -3466.813379 216.429579
-1502.865968 -3466.932636 216.297071
-1500.873929 -3467.051893 216.164563
-1498.881890 -3467.171151 216.032055
-1496.889851 -3467.290408 215.899547
-1494.897812 -3467.409665 215.767039
-1492.905773 -3467.528923 215.634530
-1490.913735 -3467.648180 215.502022
-1488.921696 -3467.767437 215.369514
-1486.929657 -3467.886695 215.237006
-1484.937618 -3468.005952 215.104498
-1482.945579 -3468.125209 214.971990
-1480.953540 -3468.244467 214.839482
-1478.961501 -3468.363724 214.706973
-1476.969462 -3468.482981 214.574465
-1474.977423 -3468.602239 214.441957
-1472.985384 -3468.721496 214.309449
-1470.993345 -3468.840753 214.176941
-1469.001306 -3468.960011 214.044433
-1467.009267 -3469.079268 213.911925
-1465.017228 -3469.198525 213.779416
-1463.025189 -3469.317782 213.646908
-1461.033150 -3469.437040 213.514400
-1459.041111 -3469.556297 213.381892
-1457.049072 -3469.675554 213.249384
-1455.057033 -3469.794812 213.116876
-1453.064994 -3469.914069 212.984368
-1451.072955 -3470.033326 212.851860
-1449.080916 -3470.152584 212.719351
-1447.088877 -3470.271841 212.586843
-1445.096838 -3470.391098 212.454335
-1443.104799 -3470.510356 212.321827
-1441.112760 -3470.629613 212.189319
-1439.120721 -3470.748870 212.056811
-1437.128682 -3470.868128 211.924303
-1435.136643 -3470.987385 211.791794
-1433.144604 -3471.106642 211.659286
-1431.152565 -3471.225900 211.526778
-1429.160526 -3471.345157 211.394270
-1427.168487 -3471.464414 211.261762
-1425.176448 -3471.583672 211.129254
-1423.184409 -3471.702929 210.996746
-1421.192370 -3471.822186 210.864237
-1419.200331 -3471.941444 210.731729
-1417.208292 -3472.060701 210.599221
-1415.216253 -3472.179958 210.466713
-1413.224214 -3472.299216 210.334205
-1411.232175 -3472.418473 210.201697
-1409.240136 -3472.537730 210.069189
-1407.248097 -3472.656988 209.936681
-1405.256058 -3472.776245 209.804172
-1403.264020 -3472.895502 209.671664
-1401.271981 -3473.014759 209.539156
-1399.279942 -3473.134017 209.406648
-1397.287903 -3473.253274 209.274140
-1395.295864 -3473.372531 209.141632
-1393.303825 -3473.491789 209.009124
-1391.311786 -3473.611046 208.876615
-1389.319747 -3473.730303 208.744107
-1387.327708 -3473.849561 208.611599
-1385.335669 -3473.968818 208.479091
-1383.343630 -3474.088075 208.346583
-1381.351591 -3474.207333 208.214075
-1379.359552 -3474.326590 208.081567
-1377.367513 -3474.445847 207.949059
-1375.375474 -3474.565105 207.816550
-1373.383435 -3474.684362 207.684042
-1371.391396 -3474.803619 207.551534
-1369.399357 -3474.922877 207.419026
-1367.407318 -3475.042134 207.286518
-1365.415279 -3475.161391 207.154010
-1363.423240 -3475.280649 207.021502
-1361.431201 -3475.399906 206.888993
-1359.439162 -3475.519163 206.756485
-1357.447123 -3475.638421 206.623977
-1355.455084 -3475.757678 206.491469
-1353.463045 -3475.876935 206.358961
-1351.471006 -3475.996193 206.226453
-1349.478967 -3476.115450 206.093945
-1347.486928 -3476.234707 205.961436
-1345.494889 -3476.353965 205.828928
-1343.502850 -3476.473222 205.696420
-1341.510811 -3476.592479 205.563912
-1339.518772 -3476.711736 205.431404
-1337.526733 -3476.830994 205.298896
-1335.534694 -3476.950251 205.166388
-1333.542655 -3477.069508 205.033880
-1331.550616 -3477.188766 204.901371
-1329.558577 -3477.308023 204.768863
-1327.566538 -3477.427280 204.636355
-1325.574499 -3477.546538 204.503847
-1323.582460 -3477.665795 204.371339
-1321.590421 -3477.785052 204.238831
-1319.598382 -3477.904310 204.106323
-1317.606344 -3478.023567 203.973814
-1315.614305 -3478.142824 203.841306
-1313.622266 -3478.262082 203.708798
-1311.630227 -3478.381339 203.576290
-1309.638188 -3478.500596 203.443782
-1307.646149 -3478.619854 203.311274
-1305.654110 -3478.739111 203.178766
-1303.662071 -3478.858368 203.046257
-1301.670032 -3478.977626 202.913749
-1299.677993 -3479.096883 202.781241
-1297.685954 -3479.216140 202.648733
-1295.693915 -3479.335398 202.516225
-1293.701876 -3479.454655 202.383717
-1291.709837 -3479.573912 202.251209
-1289.717798 -3479.693170 202.118701
-1287.725759 -3479.812427 201.986192
-1285.733720 -3479.931684 201.853684
-1283.741681 -3480.050941 201.721176
-1281.749642 -3480.170199 201.588668
-1279.757603 -3480.289456 201.456160
-1277.765564 -3480.408713 201.323652
-1275.773525 -3480.527971 201.191144
-1273.781486 -3480.647228 201.058635
-1271.789447 -3480.766485 200.926127
-1269.797408 -3480.885743 200.793619
-1267.805369 -3481.005000 200.661111
-1265.813330 -3481.124257 200.528603
-1263.821291 -3481.243515 200.396095
-1261.829252 -3481.362772 200.263587
-1259.837213 -3481.482029 200.131078
-1257.845174 -3481.601287 199.998570
-1255.853135 -3481.720544 199.866062
-1253.861096 -3481.839801 199.733554
-1251.869057 -3481.959059 199.601046
-1249.877018 -3482.078316 199.468538
-1247.884979 -3482.197573 199.336030
-1245.892940 -3482.316831 199.203522
-1243.900901 -3482.436088 199.071013
-1241.908862 -3482.555345 198.938505
-1239.916823 -3482.674603 198.805997
-1237.924784 -3482.793860 198.673489
-1235.932745 -3482.913117 198.540981
-1233.940706 -3483.032375 198.408473
-1231.948668 -3483.151632 198.275965
-1229.956629 -3483.270889 198.143456
-1227.964590 -3483.390147 198.010948
-1225.972551 -3483.509404 197.878440
-1223.980512 -3483.628661 197.745932
-1221.988473 -3483.747918 197.613424
-1219.996434 -3483.867176 197.480916
-1218.004395 -3483.986433 197.348408
-1216.012356 -3484.105690 197.215899
-1214.020317 -3484.224948 197.083391
-1212.028278 -3484.344205 196.950883
-1210.036239 -3484.463462 196.818375
-1208.044200 -3484.582720 196.685867
-1206.052161 -3484.701977 196.553359
-1204.060122 -3484.821234 196.420851
-1202.068083 -3484.940492 196.288343
-1200.076044 -3485.059749 196.155834
-1198.084005 -3485.179006 196.023326
-1196.091966 -3485.298264 195.890818
-1194.099927 -3485.417521 195.758310
-1192.107888 -3485.536778 195.625802
-1190.115849 -3485.656036 195.493294
-1188.123810 -3485.775293 195.360786
-1186.131771 -3485.894550 195.228277
-1184.139732 -3486.013808 195.095769
-1182.147693 -3486.133065 194.963261
-1180.155654 -3486.252322 194.830753
-1178.163615 -3486.371580 194.698245
-1176.171576 -3486.490837 194.565737
-1174.179537 -3486.610094 194.433229
-1172.187498 -3486.729352 194.300721
-1170.195459 -3486.848609 194.168212
-1168.203420 -3486.967866 194.035704
-1166.211381 -3487.087124 193.903196
-1164.219342 -3487.206381 193.770688
-1162.227303 -3487.325638 193.638180
-1160.235264 -3487.444895 193.505672
-1158.243225 -3487.564153 193.373164
-1156.251186 -3487.683410 193.240655
-1154.259147 -3487.802667 193.108147
-1152.267108 -3487.921925 192.975639
-1150.275069 -3488.041182 192.843131
-1148.283030 -3488.160439 192.710623
-1146.290992 -3488.279697 192.578115
-1144.298953 -3488.398954 192.445607
-1142.306914 -3488.518211 192.313098
-1140.314875 -3488.637469 192.180590
-1138.322836 -3488.756726 192.048082
-1136.330797 -3488.875983 191.915574
-1134.338758 -3488.995241 191.783066
-1132.346719 -3489.114498 191.650558
-1130.354680 -3489.233755 191.518050
-1128.362641 -3489.353013 191.385542
-1126.370602 -3489.472270 191.253033
-1124.378563 -3489.591527 191.120525
-1122.386524 -3489.710785 190.988017
-1120.394485 -3489.830042 190.855509
-1118.402446 -3489.949299 190.723001
-1116.410407 -3490.068557 190.590493
-1114.418368 -3490.187814 190.457985
-1112.426329 -3490.307071 190.325476
-1110.434290 -3490.426329 190.192968
-1108.442251 -3490.545586 190.060460
-1106.450212 -3490.664843 189.927952
-1104.458173 -3490.784101 189.795444
-1102.466134 -3490.903358 189.662936
-1100.474095 -3491.022615 189.530428
-1098.482056 -3491.141872 189.397919
-1096.490017 -3491.261130 189.265411
-1094.497978 -3491.380387 189.132903
-1092.505939 -3491.499644 189.000395
-1090.513900 -3491.618902 188.867887
-1088.521861 -3491.738159 188.735379
-1086.529822 -3491.857416 188.602871
-1084.537783 -3491.976674 188.470363
-1082.545744 -3492.095931 188.337854
-1080.553705 -3492.215188 188.205346
-1078.561666 -3492.334446 188.072838
-1076.569627 -3492.453703 187.940330
-1074.577588 -3492.572960 187.807822
-1072.585549 -3492.692218 187.675314
-1070.593510 -3492.811475 187.542806
-1068.601471 -3492.930732 187.410297
-1066.609432 -3493.049990 187.277789
-1064.617393 -3493.169247 187.145281
-1062.625354 -3493.288504 187.012773
-1060.633316 -3493.407762 186.880265
-1058.641277 -3493.527019 186.747757
-1056.649238 -3493.646276 186.615249
-1054.657199 -3493.765534 186.482740
-1052.665160 -3493.884791 186.350232
-1050.673121 -3494.004048 186.217724
-1048.681082 -3494.123306 186.085216
-1046.689043 -3494.242563 185.952708
-1044.697004 -3494.361820 185.820200
-1042.704965 -3494.481077 185.687692
-1040.712926 -3494.600335 185.555184
-1038.720887 -3494.719592 185.422675
-1036.728848 -3494.838849 185.290167
-1034.736809 -3494.958107 185.157659
-1032.744770 -3495.077364 185.025151
-1030.752731 -3495.196621 184.892643
-1028.760692 -3495.315879 184.760135
-1026.768653 -3495.435136 184.627627
-1024.776614 -3495.554393 184.495118
-1022.784575 -3495.673651 184.362610
-1020.792536 -3495.792908 184.230102
-1018.800497 -3495.912165 184.097594
-1016.808458 -3496.031423 183.965086
-1014.816419 -3496.150680 183.832578
-1012.824380 -3496.269937 183.700070
-1010.832341 -3496.389195 183.567561
-1008.840302 -3496.508452 183.435053
-1006.848263 -3496.627709 183.302545
-1004.856224 -3496.746967 183.170037
-1002.864185 -3496.866224 183.037529
-1000.872146 -3496.985481 182.905021
-998.880107 -3497.104739 182.772513
-996.888068 -3497.223996 182.640005
-994.896029 -3497.343253 182.507496
-992.903990 -3497.462511 182.374988
-990.911951 -3497.581768 182.242480
-988.919912 -3497.701025 182.109972
-986.927873 -3497.820283 181.977464
-984.935834 -3497.939540 181.844956
-982.943795 -3498.058797 181.712448
-980.951756 -3498.178054 181.579939
-978.959717 -3498.297312 181.447431
-976.967678 -3498.416569 181.314923
-974.975640 -3498.535826 181.182415
-972.983601 -3498.655084 181.049907
-970.991562 -3498.774341 180.917399
-968.999523 -3498.893598 180.784891
-967.007484 -3499.012856 180.652383
-965.015445 -3499.132113 180.519874
-963.023406 -3499.251370 180.387366
-961.031367 -3499.370628 180.254858
-959.039328 -3499.489885 180.122350
-957.047289 -3499.609142 179.989842
-955.055250 -3499.728400 179.857334
-953.063211 -3499.847657 179.724826
-951.071172 -3499.966914 179.592317
-949.079133 -3500.086172 179.459809
-947.087094 -3500.205429 179.327301
-945.095055 -3500.324686 179.194793
-943.103016 -3500.443944 179.062285
-941.110977 -3500.563201 178.929777
-939.118938 -3500.682458 178.797269
-937.126899 -3500.801716 178.664760
-935.134860 -3500.920973 178.532252
-933.142821 -3501.040230 178.399744
-931.150782 -3501.159488 178.267236
-929.158743 -3501.278745 178.134728
-927.166704 -3501.398002 178.002220
-925.174665 -3501.517260 177.869712
-923.182626 -3501.636517 177.737204
-921.190587 -3501.755774 177.604695
-919.198548 -3501.875031 177.472187
-917.206509 -3501.994289 177.339679
-915.214470 -3502.113546 177.207171
-913.222431 -3502.232803 177.074663
-911.230392 -3502.352061 176.942155
-909.238353 -3502.471318 176.809647
-907.246314 -3502.590575 176.677138
-905.254275 -3502.709833 176.544630
-903.262236 -3502.829090 176.412122
-901.270197 -3502.948347 176.279614
-899.278158 -3503.067605 176.147106
-897.286119 -3503.186862 176.014598
-895.294080 -3503.306119 175.882090
-893.302041 -3503.425377 175.749581
-891.310002 -3503.544634 175.617073
-889.317964 -3503.663891 175.484565
-887.325925 -3503.783149 175.352057
-885.333886 -3503.902406 175.219549
-883.341847 -3504.021663 175.087041
-881.349808 -3504.140921 174.954533
-879.357769 -3504.260178 174.822025
-877.365730 -3504.379435 174.689516
-875.373691 -3504.498693 174.557008
-873.381652 -3504.617950 174.424500
-871.389613 -3504.737207 174.291992
-869.397574 -3504.856465 174.159484
-867.405535 -3504.975722 174.026976
-865.413496 -3505.094979 173.894468
-863.421457 -3505.214237 173.761959
-861.429418 -3505.333494 173.629451
-859.437379 -3505.452751 173.496943
-857.445340 -3505.572008 173.364435
-855.453301 -3505.691266 173.231927
-853.461262 -3505.810523 173.099419
-851.469223 -3505.929780 172.966911
-849.477184 -3506.049038 172.834402
-847.485145 -3506.168295 172.701894
-845.493106 -3506.287552 172.569386
-843.501067 -3506.406810 172.436878
-841.509028 -3506.526067 172.304370
-839.516989 -3506.645324 172.171862
-837.524950 -3506.764582 172.039354
-835.532911 -3506.883839 171.906846
-833.540872 -3507.003096 171.774337
-831.548833 -3507.122354 171.641829
-829.556794 -3507.241611 171.509321
-827.564755 -3507.360868 171.376813
-825.572716 -3507.480126 171.244305
-823.580677 -3507.599383 171.111797
-821.588638 -3507.718640 170.979289
-819.596599 -3507.837898 170.846780
-817.604560 -3507.957155 170.714272
-815.612521 -3508.076412 170.581764
-813.620482 -3508.195670 170.449256
-811.628443 -3508.314927 170.316748
-809.636404 -3508.434184 170.184240
-807.644365 -3508.553442 170.051732
-805.652326 -3508.672699 169.919223
-803.660288 -3508.791956 169.786715
-801.668249 -3508.911214 169.654207
-799.676210 -3509.030471 169.521699
-797.684171 -3509.149728 169.389191
-795.692132 -3509.268985 169.256683
-793.700093 -3509.388243 169.124175
-791.708054 -3509.507500 168.991667
-789.716015 -3509.626757 168.859158
-787.723976 -3509.746015 168.726650
-785.731937 -3509.865272 168.594142
-783.739898 -3509.984529 168.461634
-781.747859 -3510.103787 168.329126
-779.755820 -3510.223044 168.196618
-777.763781 -3510.342301 168.064110
-775.771742 -3510.461559 167.931601
-773.779703 -3510.580816 167.799093
-771.787664 -3510.700073 167.666585
-769.795625 -3510.819331 167.534077
-767.803586 -3510.938588 167.401569
-765.811547 -3511.057845 167.269061
-763.819508 -3511.177103 167.136553
-761.827469 -3511.296360 167.004045
-759.835430 -3511.415617 166.871536
-757.843391 -3511.534875 166.739028
-755.851352 -3511.654132 166.606520
-753.859313 -3511.773389 166.474012
-751.867274 -3511.892647 166.341504
-749.875235 -3512.011904 166.208996
-747.883196 -3512.131161 166.076488
-745.891157 -3512.250419 165.943979
-743.899118 -3512.369676 165.811471
-741.907079 -3512.488933 165.678963
-739.915040 -3512.608190 165.546455
-737.923001 -3512.727448 165.413947
-735.930962 -3512.846705 165.281439
-733.938923 -3512.965962 165.148931
-731.946884 -3513.085220 165.016422
-729.954845 -3513.204477 164.883914
-727.962806 -3513.323734 164.751406
-725.970767 -3513.442992 164.618898
-723.978728 -3513.562249 164.486390
-721.986689 -3513.681506 164.353882
-719.994650 -3513.800764 164.221374
-718.002612 -3513.920021 164.088866
-716.010573 -3514.039278 163.956357
-714.018534 -3514.158536 163.823849
-712.026495 -3514.277793 163.691341
-710.034456 -3514.397050 163.558833
-708.042417 -3514.516308 163.426325
-706.050378 -3514.635565 163.293817
-704.058339 -3514.754822 163.161309
-702.066300 -3514.874080 163.028800
-700.074261 -3514.993337 162.896292
-698.082222 -3515.112594 162.763784
-696.090183 -3515.231852 162.631276
-694.098144 -3515.351109 162.498768
-692.106105 -3515.470366 162.366260
-690.114066 -3515.589624 162.233752
-688.122027 -3515.708881 162.101243
-686.129988 -3515.828138 161.968735
-684.137949 -3515.947396 161.836227
-682.145910 -3516.066653 161.703719
-680.153871 -3516.185910 161.571211
-678.161832 -3516.305167 161.438703
-676.169793 -3516.424425 161.306195
-674.177754 -3516.543682 161.173687
-672.185715 -3516.662939 161.041178
-670.193676 -3516.782197 160.908670
-668.201637 -3516.901454 160.776162
-666.209598 -3517.020711 160.643654
-664.217559 -3517.139969 160.511146
-662.225520 -3517.259226 160.378638
-660.233481 -3517.378483 160.246130
-658.241442 -3517.497741 160.113621
-656.249403 -3517.616998 159.981113
-654.257364 -3517.736255 159.848605
