-1068.000000 -520.000000 32.000000
-1069.031151 -520.488440 33.642606
-1070.062302 -520.976880 35.285211
-1071.093454 -521.465320 36.927817
-1072.124605 -521.953760 38.570423
-1073.155756 -522.442200 40.213029
-1074.186907 -522.930640 41.855634
-1075.218058 -523.419080 43.498240
-1076.249209 -523.907520 45.140846
-1077.280361 -524.395960 46.783452
-1078.311512 -524.884400 48.426057
-1079.342663 -525.372840 50.068663
-1080.373814 -525.861280 51.711269
-1081.404965 -526.349720 53.353875
-1082.436116 -526.838160 54.996480
-1083.467268 -527.326600 56.639086
-1084.498419 -527.815040 58.281692
-1085.529570 -528.303481 59.924297
-1086.560721 -528.791921 61.566903
-1087.591872 -529.280361 63.209509
-1088.623024 -529.768801 64.852115
-1089.654175 -530.257241 66.494720
-1090.685326 -530.745681 68.137326
-1091.716477 -531.234121 69.779932
-1092.747628 -531.722561 71.422538
-1093.778779 -532.211001 73.065143
-1094.809931 -532.699441 74.707749
-1095.841082 -533.187881 76.350355
-1096.872233 -533.676321 77.992960
-1097.903384 -534.164761 79.635566
-1098.934535 -534.653201 81.278172
-1099.965686 -535.141641 82.920778
-1100.996838 -535.630081 84.563383
-1102.027989 -536.118521 86.205989
-1103.059140 -536.606961 87.848595
-1104.090291 -537.095401 89.491201
-1105.121442 -537.583841 91.133806
-1106.152593 -538.072281 92.776412
-1107.183745 -538.560721 94.419018
-1108.214896 -539.049161 96.061624
-1109.246047 -539.537601 97.704229
-1110.277198 -540.026041 99.346835
-1111.308349 -540.514481 100.989441
-1112.339501 -541.002921 102.632046
-1113.370652 -541.491361 104.274652
-1114.401803 -541.979801 105.917258
-1115.432954 -542.468241 107.559864
-1116.464105 -542.956681 109.202469
-1117.495256 -543.445121 110.845075
-1118.666667 -544.000000 112.711111
-1118.666667 -546.000000 112.711111
-1118.666667 -548.000000 112.711111
-1118.666667 -550.000000 112.711111
-1118.666667 -552.000000 112.711111
-1118.666667 -554.000000 112.711111
-1118.666667 -556.000000 112.711111
-1118.666667 -560.000000 112.711111
-1117.560989 -560.915044 111.318211
-1116.455311 -561.830088 109.925311
-1115.349633 -562.745132 108.532411
-1114.243955 -563.660176 107.139511
-1113.138277 -564.575219 105.746610
-1112.032599 -565.490263 104.353710
-1110.926920 -566.405307 102.960810
-1109.821242 -567.320351 101.567910
-1108.715564 -568.235395 100.175010
-1107.609886 -569.150439 98.782110
-1106.504208 -570.065483 97.389210
-1105.398530 -570.980527 95.996309
-1104.292852 -571.895571 94.603409
-1103.187174 -572.810614 93.210509
-1102.081496 -573.725658 91.817609
-1100.975818 -574.640702 90.424709
-1099.870140 -575.555746 89.031809
-1098.764462 -576.470790 87.638909
-1097.658784 -577.385834 86.246009
-1096.553106 -578.300878 84.853108
-1095.447428 -579.215922 83.460208
-1094.341750 -580.130965 82.067308
-1093.236072 -581.046009 80.674408
-1092.130394 -581.961053 79.281508
-1091.024716 -582.876097 77.888608
-1089.919038 -583.791141 76.495708
-1088.813360 -584.706185 75.102807
-1087.707682 -585.621229 73.709907
-1086.602004 -586.536273 72.317007
-1085.496326 -587.451317 70.924107
-1084.390648 -588.366360 69.531207
-1083.284970 -589.281404 68.138307
-1082.179292 -590.196448 66.745407
-1080.000000 -592.000000 64.000000
-1078.076952 -592.549442 64.000000
-1076.153904 -593.098885 64.000000
-1074.230856 -593.648327 64.000000
-1072.307808 -594.197769 64.000000
-1070.384761 -594.747211 64.000000
-1068.461713 -595.296654 64.000000
-1066.538665 -595.846096 64.000000
-1064.615617 -596.395538 64.000000
-1062.692569 -596.944980 64.000000
-1060.769521 -597.494423 64.000000
-1058.846473 -598.043865 64.000000
-1056.923425 -598.593307 64.000000
-1055.000377 -599.142749 64.000000
-1053.077329 -599.692192 64.000000
-1051.154282 -600.241634 64.000000
-1049.231234 -600.791076 64.000000
-1047.308186 -601.340518 64.000000
-1045.385138 -601.889961 64.000000
-1043.462090 -602.439403 64.000000
-1041.539042 -602.988845 64.000000
-1039.615994 -603.538287 64.000000
-1037.692946 -604.087730 64.000000
-1035.769898 -604.637172 64.000000
-1033.846851 -605.186614 64.000000
-1031.923803 -605.736056 64.000000
-1030.000755 -606.285499 64.000000
-1028.077707 -606.834941 64.000000
-1026.154659 -607.384383 64.000000
-1024.000000 -608.000000 64.000000
-1023.905218 -609.848258 63.241740
-1023.810435 -611.696516 62.483480
-1023.715653 -613.544775 61.725221
-1023.620870 -615.393033 60.966961
-1023.526088 -617.241291 60.208701
-1023.431305 -619.089549 59.450441
-1023.336523 -620.937807 58.692182
-1023.241740 -622.786066 57.933922
-1023.146958 -624.634324 57.175662
-1023.052175 -626.482582 56.417402
-1022.957393 -628.330840 55.659142
-1022.862610 -630.179098 54.900883
-1022.767828 -632.027357 54.142623
-1022.673045 -633.875615 53.384363
-1022.578263 -635.723873 52.626103
-1022.483480 -637.572131 51.867844
-1022.388698 -639.420389 51.109584
-1022.293916 -641.268648 50.351324
-1022.199133 -643.116906 49.593064
-1022.104351 -644.965164 48.834804
-1022.009568 -646.813422 48.076545
-1021.914786 -648.661681 47.318285
-1021.820003 -650.509939 46.560025
-1021.725221 -652.358197 45.801765
-1021.630438 -654.206455 45.043506
-1021.535656 -656.054713 44.285246
-1021.440873 -657.902972 43.526986
-1021.346091 -659.751230 42.768726
-1021.251308 -661.599488 42.010466
-1021.156526 -663.447746 41.252207
-1021.061743 -665.296004 40.493947
-1020.966961 -667.144263 39.735687
-1020.872178 -668.992521 38.977427
-1020.777396 -670.840779 38.219168
-1020.682613 -672.689037 37.460908
-1020.587831 -674.537295 36.702648
-1020.493049 -676.385554 35.944388
-1020.398266 -678.233812 35.186128
-1020.303484 -680.082070 34.427869
-1020.208701 -681.930328 33.669609
-1020.113919 -683.778586 32.911349
-1020.019136 -685.626845 32.153089
-1019.924354 -687.475103 31.394830
-1019.829571 -689.323361 30.636570
-1019.734789 -691.171619 29.878310
-1019.640006 -693.019877 29.120050
-1019.545224 -694.868136 28.361790
-1019.450441 -696.716394 27.603531
-1019.355659 -698.564652 26.845271
-1019.260876 -700.412910 26.087011
-1019.166094 -702.261168 25.328751
-1019.071311 -704.109427 24.570492
-1018.976529 -705.957685 23.812232
-1018.881747 -707.805943 23.053972
-1018.786964 -709.654201 22.295712
-1018.692182 -711.502460 21.537453
-1018.597399 -713.350718 20.779193
-1018.502617 -715.198976 20.020933
-1018.407834 -717.047234 19.262673
-1018.313052 -718.895492 18.504413
-1018.218269 -720.743751 17.746154
-1018.123487 -722.592009 16.987894
-1018.028704 -724.440267 16.229634
-1017.933922 -726.288525 15.471374
-1017.839139 -728.136783 14.713115
-1017.744357 -729.985042 13.954855
-1017.649574 -731.833300 13.196595
-1017.554792 -733.681558 12.438335
-1017.460009 -735.529816 11.680075
-1017.365227 -737.378074 10.921816
-1017.270444 -739.226333 10.163556
-1017.175662 -741.074591 9.405296
-1017.080880 -742.922849 8.647036
-1016.986097 -744.771107 7.888777
-1016.891315 -746.619365 7.130517
-1016.796532 -748.467624 6.372257
-1016.701750 -750.315882 5.613997
-1016.606967 -752.164140 4.855737
-1016.512185 -754.012398 4.097478
-1016.417402 -755.860656 3.339218
-1016.322620 -757.708915 2.580958
-1016.227837 -759.557173 1.822698
-1016.133055 -761.405431 1.064439
-1016.000000 -764.000000 0.000000
-1017.740044 -764.000000 -0.986025
-1019.480089 -764.000000 -1.972050
-1021.220133 -764.000000 -2.958075
-1022.960177 -764.000000 -3.944101
-1024.700222 -764.000000 -4.930126
-1026.440266 -764.000000 -5.916151
-1028.180311 -764.000000 -6.902176
-1029.920355 -764.000000 -7.888201
-1031.660399 -764.000000 -8.874226
-1033.400444 -764.000000 -9.860251
-1035.140488 -764.000000 -10.846277
-1036.880532 -764.000000 -11.832302
-1038.620577 -764.000000 -12.818327
-1040.360621 -764.000000 -13.804352
-1042.100666 -764.000000 -14.790377
-1043.840710 -764.000000 -15.776402
-1045.580754 -764.000000 -16.762427
-1047.320799 -764.000000 -17.748453
-1049.060843 -764.000000 -18.734478
-1050.800887 -764.000000 -19.720503
-1052.540932 -764.000000 -20.706528
-1054.280976 -764.000000 -21.692553
-1056.021021 -764.000000 -22.678578
-1057.761065 -764.000000 -23.664603
-1059.501109 -764.000000 -24.650629
-1061.241154 -764.000000 -25.636654
-1062.981198 -764.000000 -26.622679
-1064.721242 -764.000000 -27.608704
-1066.461287 -764.000000 -28.594729
-1068.201331 -764.000000 -29.580754
-1069.941376 -764.000000 -30.566779
-1071.681420 -764.000000 -31.552805
-1073.421464 -764.000000 -32.538830
-1075.161509 -764.000000 -33.524855
-1076.901553 -764.000000 -34.510880
-1078.641597 -764.000000 -35.496905
-1080.381642 -764.000000 -36.482930
-1082.121686 -764.000000 -37.468955
-1083.861730 -764.000000 -38.454981
-1085.601775 -764.000000 -39.441006
-1087.341819 -764.000000 -40.427031
-1089.081864 -764.000000 -41.413056
-1090.821908 -764.000000 -42.399081
-1092.561952 -764.000000 -43.385106
-1094.301997 -764.000000 -44.371131
-1096.042041 -764.000000 -45.357157
-1097.782085 -764.000000 -46.343182
-1099.522130 -764.000000 -47.329207
-1101.262174 -764.000000 -48.315232
-1103.002219 -764.000000 -49.301257
-1104.742263 -764.000000 -50.287282
-1106.482307 -764.000000 -51.273307
-1108.222352 -764.000000 -52.259333
-1109.962396 -764.000000 -53.245358
-1111.702440 -764.000000 -54.231383
-1113.442485 -764.000000 -55.217408
-1115.182529 -764.000000 -56.203433
-1116.922574 -764.000000 -57.189458
-1118.662618 -764.000000 -58.175483
-1120.402662 -764.000000 -59.161509
-1122.142707 -764.000000 -60.147534
-1123.882751 -764.000000 -61.133559
-1125.622795 -764.000000 -62.119584
-1127.362840 -764.000000 -63.105609
-1129.102884 -764.000000 -64.091634
-1130.842929 -764.000000 -65.077660
-1132.582973 -764.000000 -66.063685
-1136.000000 -764.000000 -68.000000
-1138.000000 -764.000000 -68.000000
-1140.000000 -764.000000 -68.000000
-1142.000000 -764.000000 -68.000000
-1144.000000 -764.000000 -68.000000
-1146.000000 -764.000000 -68.000000
-1148.000000 -764.000000 -68.000000
-1150.000000 -764.000000 -68.000000
-1152.000000 -764.000000 -68.000000
-1154.000000 -764.000000 -68.000000
-1156.000000 -764.000000 -68.000000
-1158.000000 -764.000000 -68.000000
-1160.000000 -764.000000 -68.000000
-1162.000000 -764.000000 -68.000000
-1164.000000 -764.000000 -68.000000
-1166.000000 -764.000000 -68.000000
-1168.000000 -764.000000 -68.000000
-1170.000000 -764.000000 -68.000000
-1172.000000 -764.000000 -68.000000
-1174.000000 -764.000000 -68.000000
-1176.000000 -764.000000 -68.000000
-1178.000000 -764.000000 -68.000000
-1180.000000 -764.000000 -68.000000
-1182.000000 -764.000000 -68.000000
-1184.000000 -764.000000 -68.000000
-1186.000000 -764.000000 -68.000000
-1188.000000 -764.000000 -68.000000
-1190.000000 -764.000000 -68.000000
-1192.000000 -764.000000 -68.000000
-1194.000000 -764.000000 -68.000000
-1196.000000 -764.000000 -68.000000
-1198.000000 -764.000000 -68.000000
-1200.000000 -764.000000 -68.000000
-1202.000000 -764.000000 -68.000000
-1204.000000 -764.000000 -68.000000
-1206.000000 -764.000000 -68.000000
-1208.000000 -764.000000 -68.000000
-1210.000000 -764.000000 -68.000000
-1212.000000 -764.000000 -68.000000
-1214.000000 -764.000000 -68.000000
-1216.000000 -764.000000 -68.000000
-1218.000000 -764.000000 -68.000000
-1220.000000 -764.000000 -68.000000
-1222.000000 -764.000000 -68.000000
-1224.000000 -764.000000 -68.000000
-1226.000000 -764.000000 -68.000000
-1228.000000 -764.000000 -68.000000
-1230.000000 -764.000000 -68.000000
-1232.000000 -764.000000 -68.000000
-1234.000000 -764.000000 -68.000000
-1236.000000 -764.000000 -68.000000
-1238.000000 -764.000000 -68.000000
-1240.000000 -764.000000 -68.000000
-1242.000000 -764.000000 -68.000000
-1244.000000 -764.000000 -68.000000
-1246.000000 -764.000000 -68.000000
-1248.000000 -764.000000 -68.000000
-1250.000000 -764.000000 -68.000000
-1252.000000 -764.000000 -68.000000
-1254.000000 -764.000000 -68.000000
-1256.000000 -764.000000 -68.000000
-1258.000000 -764.000000 -68.000000
-1260.000000 -764.000000 -68.000000
-1264.000000 -764.000000 -68.000000
-1265.939540 -763.515115 -68.055415
-1267.879080 -763.030230 -68.110831
-1269.818620 -762.545345 -68.166246
-1271.758160 -762.060460 -68.221662
-1273.697700 -761.575575 -68.277077
-1275.637240 -761.090690 -68.332493
-1277.576780 -760.605805 -68.387908
-1279.516320 -760.120920 -68.443323
-1281.455861 -759.636035 -68.498739
-1283.395401 -759.151150 -68.554154
-1285.334941 -758.666265 -68.609570
-1287.274481 -758.181380 -68.664985
-1289.214021 -757.696495 -68.720401
-1291.153561 -757.211610 -68.775816
-1293.093101 -756.726725 -68.831231
-1295.032641 -756.241840 -68.886647
-1296.972181 -755.756955 -68.942062
-1298.911721 -755.272070 -68.997478
-1300.851261 -754.787185 -69.052893
-1302.790801 -754.302300 -69.108309
-1304.730341 -753.817415 -69.163724
-1306.669881 -753.332530 -69.219139
-1308.609421 -752.847645 -69.274555
-1310.548961 -752.362760 -69.329970
-1312.488502 -751.877875 -69.385386
-1314.428042 -751.392990 -69.440801
-1316.367582 -750.908105 -69.496217
-1318.307122 -750.423220 -69.551632
-1320.246662 -749.938335 -69.607047
-1322.186202 -749.453450 -69.662463
-1324.125742 -748.968565 -69.717878
-1326.065282 -748.483680 -69.773294
-1328.004822 -747.998794 -69.828709
-1329.944362 -747.513909 -69.884125
-1331.883902 -747.029024 -69.939540
-1333.823442 -746.544139 -69.994955
-1335.762982 -746.059254 -70.050371
-1337.702522 -745.574369 -70.105786
-1339.642062 -745.089484 -70.161202
-1341.581602 -744.604599 -70.216617
-1343.521143 -744.119714 -70.272033
-1345.460683 -743.634829 -70.327448
-1347.400223 -743.149944 -70.382864
-1349.339763 -742.665059 -70.438279
-1351.279303 -742.180174 -70.493694
-1353.218843 -741.695289 -70.549110
-1355.158383 -741.210404 -70.604525
-1357.097923 -740.725519 -70.659941
-1359.037463 -740.240634 -70.715356
-1360.977003 -739.755749 -70.770772
-1362.916543 -739.270864 -70.826187
-1364.856083 -738.785979 -70.881602
-1366.795623 -738.301094 -70.937018
-1368.735163 -737.816209 -70.992433
-1370.674703 -737.331324 -71.047849
-1372.614243 -736.846439 -71.103264
-1374.553784 -736.361554 -71.158680
-1376.493324 -735.876669 -71.214095
-1378.432864 -735.391784 -71.269510
-1380.372404 -734.906899 -71.324926
-1382.311944 -734.422014 -71.380341
-1384.251484 -733.937129 -71.435757
-1386.191024 -733.452244 -71.491172
-1388.130564 -732.967359 -71.546588
-1390.070104 -732.482474 -71.602003
-1392.009644 -731.997589 -71.657418
-1393.949184 -731.512704 -71.712834
-1395.888724 -731.027819 -71.768249
-1397.828264 -730.542934 -71.823665
-1399.767804 -730.058049 -71.879080
-1401.707344 -729.573164 -71.934496
-1403.646884 -729.088279 -71.989911
-1405.586425 -728.603394 -72.045326
-1407.525965 -728.118509 -72.100742
-1409.465505 -727.633624 -72.156157
-1411.405045 -727.148739 -72.211573
-1413.344585 -726.663854 -72.266988
-1415.284125 -726.178969 -72.322404
-1417.223665 -725.694084 -72.377819
-1419.163205 -725.209199 -72.433234
-1421.102745 -724.724314 -72.488650
-1423.042285 -724.239429 -72.544065
-1424.981825 -723.754544 -72.599481
-1426.921365 -723.269659 -72.654896
-1428.860905 -722.784774 -72.710312
-1430.800445 -722.299889 -72.765727
-1432.739985 -721.815004 -72.821142
-1434.679525 -721.330119 -72.876558
-1436.619066 -720.845234 -72.931973
-1438.558606 -720.360349 -72.987389
-1440.498146 -719.875464 -73.042804
-1442.437686 -719.390579 -73.098220
-1444.377226 -718.905694 -73.153635
-1446.316766 -718.420809 -73.209050
-1448.256306 -717.935924 -73.264466
-1450.195846 -717.451039 -73.319881
-1452.135386 -716.966153 -73.375297
-1454.074926 -716.481268 -73.430712
-1456.014466 -715.996383 -73.486128
-1457.954006 -715.511498 -73.541543
-1459.893546 -715.026613 -73.596958
-1461.833086 -714.541728 -73.652374
-1463.772626 -714.056843 -73.707789
-1465.712166 -713.571958 -73.763205
-1467.651707 -713.087073 -73.818620
-1469.591247 -712.602188 -73.874036
-1471.530787 -712.117303 -73.929451
-1473.470327 -711.632418 -73.984866
-1475.409867 -711.147533 -74.040282
-1477.349407 -710.662648 -74.095697
-1479.288947 -710.177763 -74.151113
-1481.228487 -709.692878 -74.206528
-1483.168027 -709.207993 -74.261944
-1485.107567 -708.723108 -74.317359
-1487.047107 -708.238223 -74.372774
-1488.986647 -707.753338 -74.428190
-1490.926187 -707.268453 -74.483605
-1492.865727 -706.783568 -74.539021
-1494.805267 -706.298683 -74.594436
-1496.744807 -705.813798 -74.649852
-1498.684347 -705.328913 -74.705267
-1500.623888 -704.844028 -74.760683
-1502.563428 -704.359143 -74.816098
-1504.502968 -703.874258 -74.871513
-1506.442508 -703.389373 -74.926929
-1508.382048 -702.904488 -74.982344
-1510.321588 -702.419603 -75.037760
-1512.261128 -701.934718 -75.093175
-1514.200668 -701.449833 -75.148591
-1516.140208 -700.964948 -75.204006
-1518.079748 -700.480063 -75.259421
-1520.019288 -699.995178 -75.314837
-1521.958828 -699.510293 -75.370252
-1523.898368 -699.025408 -75.425668
-1525.837908 -698.540523 -75.481083
-1527.777448 -698.055638 -75.536499
-1529.716988 -697.570753 -75.591914
-1531.656529 -697.085868 -75.647329
-1533.596069 -696.600983 -75.702745
-1535.535609 -696.116098 -75.758160
-1537.475149 -695.631213 -75.813576
-1539.414689 -695.146328 -75.868991
-1541.354229 -694.661443 -75.924407
-1543.293769 -694.176558 -75.979822
-1545.233309 -693.691673 -76.035237
-1547.172849 -693.206788 -76.090653
-1549.112389 -692.721903 -76.146068
-1551.051929 -692.237018 -76.201484
-1552.991469 -691.752133 -76.256899
-1554.931009 -691.267248 -76.312315
-1556.870549 -690.782363 -76.367730
-1558.810089 -690.297478 -76.423145
-1560.749629 -689.812593 -76.478561
-1562.689170 -689.327708 -76.533976
-1564.628710 -688.842823 -76.589392
-1566.568250 -688.357938 -76.644807
-1568.507790 -687.873053 -76.700223
-1570.447330 -687.388168 -76.755638
-1572.386870 -686.903283 -76.811053
-1574.326410 -686.418398 -76.866469
-1576.265950 -685.933513 -76.921884
-1578.205490 -685.448627 -76.977300
-1580.145030 -684.963742 -77.032715
-1582.084570 -684.478857 -77.088131
-1584.024110 -683.993972 -77.143546
-1585.963650 -683.509087 -77.198961
-1587.903190 -683.024202 -77.254377
-1589.842730 -682.539317 -77.309792
-1591.782270 -682.054432 -77.365208
-1593.721811 -681.569547 -77.420623
-1595.661351 -681.084662 -77.476039
-1597.600891 -680.599777 -77.531454
-1599.540431 -680.114892 -77.586869
-1601.479971 -679.630007 -77.642285
-1603.419511 -679.145122 -77.697700
-1605.359051 -678.660237 -77.753116
-1607.298591 -678.175352 -77.808531
-1609.238131 -677.690467 -77.863947
-1611.177671 -677.205582 -77.919362
-1613.117211 -676.720697 -77.974777
-1615.056751 -676.235812 -78.030193
-1616.996291 -675.750927 -78.085608
-1618.935831 -675.266042 -78.141024
-1620.875371 -674.781157 -78.196439
-1622.814911 -674.296272 -78.251855
-1624.754452 -673.811387 -78.307270
-1626.693992 -673.326502 -78.362685
-1628.633532 -672.841617 -78.418101
-1630.573072 -672.356732 -78.473516
-1632.512612 -671.871847 -78.528932
-1634.452152 -671.386962 -78.584347
-1636.391692 -670.902077 -78.639763
-1638.331232 -670.417192 -78.695178
-1640.270772 -669.932307 -78.750593
-1642.210312 -669.447422 -78.806009
-1644.149852 -668.962537 -78.861424
-1646.089392 -668.477652 -78.916840
-1648.028932 -667.992767 -78.972255
-1649.968472 -667.507882 -79.027671
-1651.908012 -667.022997 -79.083086
-1653.847552 -666.538112 -79.138501
-1655.787093 -666.053227 -79.193917
-1657.726633 -665.568342 -79.249332
-1659.666173 -665.083457 -79.304748
-1661.605713 -664.598572 -79.360163
-1663.545253 -664.113687 -79.415579
-1665.484793 -663.628802 -79.470994
-1667.424333 -663.143917 -79.526410
-1669.363873 -662.659032 -79.581825
-1671.303413 -662.174147 -79.637240
-1673.242953 -661.689262 -79.692656
-1675.182493 -661.204377 -79.748071
-1677.122033 -660.719492 -79.803487
-1679.061573 -660.234607 -79.858902
-1681.001113 -659.749722 -79.914318
-1682.940653 -659.264837 -79.969733
-1684.880193 -658.779952 -80.025148
-1686.819734 -658.295067 -80.080564
-1688.759274 -657.810182 -80.135979
-1690.698814 -657.325297 -80.191395
-1692.638354 -656.840412 -80.246810
-1694.577894 -656.355527 -80.302226
-1696.517434 -655.870642 -80.357641
-1698.456974 -655.385757 -80.413056
-1700.396514 -654.900872 -80.468472
-1702.336054 -654.415987 -80.523887
-1704.275594 -653.931101 -80.579303
-1706.215134 -653.446216 -80.634718
-1708.154674 -652.961331 -80.690134
-1710.094214 -652.476446 -80.745549
-1712.033754 -651.991561 -80.800964
-1713.973294 -651.506676 -80.856380
-1715.912834 -651.021791 -80.911795
-1717.852374 -650.536906 -80.967211
-1719.791915 -650.052021 -81.022626
-1721.731455 -649.567136 -81.078042
-1723.670995 -649.082251 -81.133457
-1725.610535 -648.597366 -81.188872
-1727.550075 -648.112481 -81.244288
-1729.489615 -647.627596 -81.299703
-1731.429155 -647.142711 -81.355119
-1733.368695 -646.657826 -81.410534
-1735.308235 -646.172941 -81.465950
-1737.247775 -645.688056 -81.521365
-1739.187315 -645.203171 -81.576780
-1741.126855 -644.718286 -81.632196
-1743.066395 -644.233401 -81.687611
-1745.005935 -643.748516 -81.743027
-1746.945475 -643.263631 -81.798442
-1748.885015 -642.778746 -81.853858
-1750.824556 -642.293861 -81.909273
-1752.764096 -641.808976 -81.964688
-1754.703636 -641.324091 -82.020104
-1756.643176 -640.839206 -82.075519
-1758.582716 -640.354321 -82.130935
-1760.522256 -639.869436 -82.186350
-1762.461796 -639.384551 -82.241766
-1764.401336 -638.899666 -82.297181
-1766.340876 -638.414781 -82.352596
-1768.280416 -637.929896 -82.408012
-1770.219956 -637.445011 -82.463427
-1772.159496 -636.960126 -82.518843
-1774.099036 -636.475241 -82.574258
-1776.038576 -635.990356 -82.629674
-1777.978116 -635.505471 -82.685089
-1779.917656 -635.020586 -82.740504
-1781.857197 -634.535701 -82.795920
-1783.796737 -634.050816 -82.851335
-1785.736277 -633.565931 -82.906751
-1787.675817 -633.081046 -82.962166
-1789.615357 -632.596161 -83.017582
-1791.554897 -632.111276 -83.072997
-1793.494437 -631.626391 -83.128412
-1795.433977 -631.141506 -83.183828
-1797.373517 -630.656621 -83.239243
-1799.313057 -630.171736 -83.294659
-1801.252597 -629.686851 -83.350074
-1803.192137 -629.201966 -83.405490
-1805.131677 -628.717081 -83.460905
-1807.071217 -628.232196 -83.516320
-1809.010757 -627.747311 -83.571736
-1810.950297 -627.262426 -83.627151
-1812.889838 -626.777541 -83.682567
-1814.829378 -626.292656 -83.737982
-1816.768918 -625.807771 -83.793398
-1818.708458 -625.322886 -83.848813
-1820.647998 -624.838001 -83.904229
